# .PCD v0.7 - Point Cloud Data file format
VERSION 0.7
FIELDS x y z
SIZE 4 4 4
TYPE F F F
COUNT 1 1 1
WIDTH 1374
HEIGHT 1
VIEWPOINT 0 0 0 1 0 0 0
POINTS 1374
DATA ascii
9.5866919 -12.098819 6.512746e-05
9.6097851 -12.095423 8.2362516e-05
9.6695061 -12.103113 6.288079e-05
9.7020416 -12.097307 8.2678482e-05
9.73353 -12.099396 7.4449126e-05
9.7755547 -12.103163 7.2196359e-05
9.8258114 -12.100982 5.9386581e-05
9.8629932 -12.091743 8.2223632e-05
9.9017239 -12.103673 5.866462e-05
9.933445 -12.100884 6.8796871e-05
9.9734783 -12.100779 7.4176525e-05
10.016833 -12.102962 6.8803143e-05
10.066378 -12.101503 6.4028063e-05
10.097451 -12.107285 7.2257797e-05
10.146469 -12.099684 5.857494e-05
10.171844 -12.108083 6.2523832e-05
10.21551 -12.099369 7.3855037e-05
10.253 -12.106319 6.8865425e-05
10.306732 -12.106518 7.3809948e-05
10.334526 -12.109844 6.4448701e-05
10.385134 -12.09926 8.431133e-05
10.410826 -12.108427 5.8082318e-05
10.451416 -12.086975 8.4129759e-05
10.492949 -12.103384 5.2644638e-05
10.543368 -12.090982 8.4350795e-05
10.570852 -12.106392 6.084644e-05
10.635164 -12.095548 8.4518375e-05
10.663889 -12.105045 5.0427767e-05
10.697906 -12.10186 6.8476409e-05
10.731215 -12.100412 7.3266579e-05
10.767365 -12.107265 5.8141108e-05
10.821899 -12.102758 7.3169715e-05
10.855509 -12.103848 6.8669557e-05
10.899246 -12.094069 8.4726373e-05
10.932964 -12.106442 5.675952e-05
10.985188 -12.0948 8.4811472e-05
11.023105 -12.106074 5.653633e-05
11.073272 -12.09451 8.4845495e-05
11.096563 -12.099906 5.8894686e-05
11.134922 -12.103974 6.8699104e-05
11.183844 -12.099115 7.3019233e-05
11.216236 -12.109221 6.2203137e-05
11.266117 -12.110968 0.0001282611
11.315662 -12.116629 6.7489673e-05
11.35713 -12.103256 6.9002213e-05
11.372475 -12.106073 6.9111054e-05
11.405292 -12.083652 6.9230584e-05
11.449019 -12.086387 7.0241491e-05
15.15083 -12.102311 9.4589981e-05
2.8948452 -12.052443 4.8715166e-05
3.0217412 -12.054792 0.00017355006
4.8301711 -12.074028 9.5827963e-05
4.870543 -12.079008 9.4155097e-05
4.8915634 -12.065175 9.4037001e-05
4.9478621 -12.07308 9.2216214e-05
4.9712625 -12.065063 9.4047617e-05
5.0128984 -12.074783 9.2607843e-05
5.0513048 -12.075277 9.0588655e-05
5.097765 -12.067339 9.0166141e-05
5.1510258 -12.075155 8.9840607e-05
5.166513 -12.079683 9.3662951e-05
5.2049627 -12.076992 8.9925721e-05
5.2549191 -12.07655 8.9518697e-05
5.3086252 -12.074898 8.9880938e-05
5.3454089 -12.07403 8.7669665e-05
5.3949833 -12.075979 8.8164452e-05
5.4077711 -12.072155 8.9252004e-05
5.4488726 -12.071381 8.7823792e-05
5.4979978 -12.076889 8.7691282e-05
5.5417223 -12.074224 8.9437344e-05
5.5810175 -12.074624 8.6692104e-05
5.6141529 -12.07205 8.8670567e-05
5.6551661 -12.075712 8.7344204e-05
5.6878824 -12.073499 8.8298228e-05
5.7358675 -12.07748 8.5636719e-05
5.7838464 -12.078201 8.5560692e-05
5.8117313 -12.075527 8.7802589e-05
5.8499546 -12.074701 8.6657667e-05
5.8888397 -12.075462 8.6199216e-05
5.9273949 -12.072701 8.4843996e-05
5.9826021 -12.076982 8.5340871e-05
6.0180082 -12.076031 8.5070467e-05
6.0584517 -12.074879 8.4455285e-05
6.0870123 -12.076703 8.442223e-05
6.1348896 -12.073774 8.4656116e-05
6.1779265 -12.071766 8.4047941e-05
6.2218952 -12.074427 8.4646861e-05
6.2611961 -12.077803 8.3282328e-05
6.305871 -12.075178 8.354614e-05
6.3338833 -12.078605 8.6814776e-05
6.3730731 -12.077805 8.3723309e-05
6.4045248 -12.078093 8.327869e-05
6.4572449 -12.074442 8.2250808e-05
6.5065775 -12.077693 8.6515924e-05
6.5316305 -12.077761 8.2812032e-05
6.5743451 -12.076997 8.3046703e-05
6.6177006 -12.076366 8.2381615e-05
6.6701136 -12.077314 8.4039966e-05
6.7005501 -12.07411 8.1905324e-05
6.732995 -12.078182 8.2627907e-05
6.7661338 -12.077085 8.3726532e-05
6.8200297 -12.07307 8.2088394e-05
6.8521891 -12.074736 8.1112536e-05
6.9033756 -12.07345 8.127201e-05
6.9303746 -12.075289 8.1406324e-05
6.9793763 -12.078585 8.1649443e-05
7.0139856 -12.07305 8.1873019e-05
7.0628538 -12.076302 8.1438528e-05
7.0924444 -12.072749 8.138956e-05
7.1568384 -12.069072 8.5021275e-05
7.1896515 -12.078969 8.3826264e-05
7.2127428 -12.076242 8.1826205e-05
7.2619553 -12.075547 8.3817111e-05
7.2981873 -12.076848 8.2418483e-05
7.3441439 -12.074589 8.4445812e-05
7.3788176 -12.077909 8.3801628e-05
7.4218531 -12.074636 8.1542777e-05
7.4698248 -12.075761 8.1176426e-05
7.5001965 -12.075705 8.3538856e-05
7.5358448 -12.075884 8.2239399e-05
7.5853386 -12.074896 8.2933322e-05
7.6130395 -12.077994 8.2741935e-05
7.6691847 -12.075319 8.2154875e-05
7.7034407 -12.077415 8.1532628e-05
7.7364788 -12.07151 8.3602776e-05
7.7708426 -12.075903 8.0884944e-05
7.8250656 -12.074932 8.3173101e-05
7.8536997 -12.078205 8.2001803e-05
7.8888397 -12.07365 8.4026673e-05
7.9262724 -12.075617 8.1447448e-05
7.9847937 -12.077691 8.3128063e-05
8.0312557 -12.077943 8.2584207e-05
8.0716553 -12.076756 8.2476079e-05
8.102334 -12.072886 8.4952459e-05
8.1443424 -12.076279 8.2245737e-05
8.1709843 -12.077222 8.2397477e-05
8.2244625 -12.078954 8.1961232e-05
8.2675486 -12.074982 8.490761e-05
8.2882366 -12.073941 8.3600884e-05
8.3451633 -12.076792 8.297649e-05
8.3749876 -12.07592 8.1950573e-05
8.4154615 -12.077997 8.2859027e-05
8.4663162 -12.077572 8.4944149e-05
8.5024967 -12.074409 8.3567982e-05
8.5385704 -12.076849 8.3764324e-05
8.590457 -12.079205 8.3195904e-05
8.6249189 -12.077658 8.3439125e-05
8.6520672 -12.075025 8.2752129e-05
8.7046185 -12.073286 8.245965e-05
8.7515488 -12.074648 8.1652754e-05
8.7757607 -12.078617 8.4709653e-05
8.8301239 -12.070871 8.3779778e-05
8.8603134 -12.078882 8.3100706e-05
8.9086542 -12.073313 8.2924897e-05
8.9425945 -12.074703 8.2492174e-05
8.9818668 -12.075401 8.4395389e-05
9.0227528 -12.076603 8.331451e-05
9.0645962 -12.074821 8.38981e-05
9.1050529 -12.079109 8.1812694e-05
9.142683 -12.075014 8.4030326e-05
9.1691093 -12.078663 8.3051113e-05
9.2217178 -12.075474 8.2727653e-05
9.2653303 -12.076984 8.3240127e-05
9.3832445 -12.076052 8.276508e-05
9.4146557 -12.074717 8.2970568e-05
9.4429827 -12.078807 8.2128594e-05
9.4908552 -12.076509 8.4743937e-05
9.5390873 -12.076702 8.4601634e-05
9.5712633 -12.070097 8.3193416e-05
9.6149464 -12.075569 8.3268562e-05
9.6550026 -12.075376 8.2687147e-05
9.7012148 -12.074161 8.1544415e-05
9.7715302 -12.073502 8.410497e-05
9.8053207 -12.074986 8.6083062e-05
9.8981628 -12.076784 8.4261112e-05
9.9412699 -12.072142 8.1783437e-05
9.974225 -12.07331 8.3297971e-05
10.014471 -12.077829 8.4250947e-05
10.066588 -12.075661 8.2535997e-05
10.092115 -12.074634 8.4269683e-05
10.149149 -12.079898 8.5205655e-05
10.162777 -12.077793 8.4105537e-05
10.214863 -12.078374 8.334389e-05
10.31319 -12.076077 8.3331353e-05
10.337818 -12.073003 8.4402389e-05
10.379889 -12.078138 8.2466358e-05
10.410749 -12.07938 8.3577856e-05
10.484331 -12.076859 8.283752e-05
10.522423 -12.07836 8.3413186e-05
10.585238 -12.077854 8.4402098e-05
10.625181 -12.077333 8.3433464e-05
10.670666 -12.074667 8.4464496e-05
10.753195 -12.074937 8.4441643e-05
10.781639 -12.073382 8.4896077e-05
10.810161 -12.077756 8.3372826e-05
10.849502 -12.075423 8.4616899e-05
10.915746 -12.075703 8.432394e-05
10.978704 -12.075741 8.3358304e-05
11.092665 -12.077223 8.3744606e-05
11.159385 -12.074573 8.2845225e-05
11.204756 -12.076574 8.4731793e-05
11.312069 -12.069716 8.6049069e-05
11.351624 -12.07773 6.9121641e-05
11.391434 -12.077116 6.9101516e-05
11.428203 -12.060894 6.9270274e-05
11.448025 -12.060064 6.9404115e-05
11.483176 -12.041874 6.8937516e-05
17.645782 -12.076907 0.00011130476
2.8946853 -12.031387 4.830748e-05
3.0160446 -12.022244 2.4955367e-05
11.356239 -12.037184 8.2642568e-05
11.394224 -12.032049 7.2125411e-05
11.436836 -12.024702 6.9157555e-05
11.450922 -12.027025 6.9260852e-05
11.496231 -12.008893 6.9484624e-05
11.528349 -12.003875 6.8642606e-05
17.65324 -12.015846 0.00011106193
2.8946385 -11.980337 5.0067298e-05
3.0216818 -11.973249 2.1783701e-05
11.389831 -11.996319 9.7441574e-05
11.416578 -11.989466 8.5945241e-05
11.463403 -11.995369 6.9196336e-05
11.496967 -11.978383 6.9338021e-05
11.531045 -11.965183 6.9507645e-05
14.996932 -11.96237 0.00010786822
15.05583 -11.993755 9.342769e-05
2.8936017 -11.948942 4.8575665e-05
3.0216117 -11.932155 2.1801261e-05
11.433965 -11.952847 0.00011879124
11.478364 -11.955221 6.8971436e-05
11.516338 -11.949361 6.9330563e-05
11.541882 -11.933437 6.9425165e-05
11.568727 -11.943562 6.9661066e-05
11.617964 -11.935844 8.27654e-05
14.951998 -11.922256 9.3907292e-05
14.987838 -11.924732 9.261856e-05
17.643822 -11.947668 0.00011067103
2.8981943 -11.904998 4.7741312e-05
3.0218172 -11.910525 2.1596828e-05
11.464333 -11.914944 9.2657792e-05
11.513378 -11.908642 7.0463517e-05
11.557286 -11.90492 6.9401969e-05
11.573618 -11.902576 6.9491245e-05
11.607067 -11.884686 6.9631482e-05
11.664911 -11.882563 8.2549835e-05
14.949658 -11.886199 9.2189541e-05
14.965498 -11.896086 9.2343602e-05
2.8940964 -11.855865 4.7375317e-05
3.0147414 -11.858236 4.3997286e-05
11.513205 -11.877578 8.5102969e-05
11.545082 -11.871498 6.9609669e-05
11.595391 -11.876675 6.9515598e-05
11.625056 -11.852348 6.9597168e-05
11.659731 -11.843534 6.979359e-05
11.686625 -11.843365 7.59959e-05
14.911217 -11.845894 9.170275e-05
14.933435 -11.872098 9.2015842e-05
14.964867 -11.873531 0.00015794217
17.63459 -11.879907 0.00011028338
2.8979659 -11.822001 5.0749739e-05
3.0213149 -11.823078 0.00016595174
11.557611 -11.831964 0.00010362729
11.592837 -11.826481 8.6614717e-05
11.637295 -11.823849 6.9547023e-05
11.660807 -11.823639 6.9700451e-05
11.691616 -11.815047 6.9868198e-05
11.731553 -11.812128 8.1522536e-05
14.872381 -11.80465 9.1262045e-05
14.881556 -11.809971 9.1352107e-05
14.92686 -11.832936 0.00012452982
14.980949 -11.807371 0.00011770667
17.635708 -11.816841 0.00010998813
2.8955433 -11.786077 4.5947774e-05
3.018621 -11.771993 2.3821402e-05
11.595116 -11.798281 8.78719e-05
11.630451 -11.792639 7.9662597e-05
11.670466 -11.783587 6.9589281e-05
11.710961 -11.783546 6.9846501e-05
11.735579 -11.761845 6.9910457e-05
11.762018 -11.776857 8.1114296e-05
14.832756 -11.766657 9.0822745e-05
14.844441 -11.77253 9.0936199e-05
14.882122 -11.79895 9.2056755e-05
14.932592 -11.766758 0.00011204606
14.97366 -11.77422 0.00012415175
17.654818 -11.761486 0.00010985132
2.8958192 -11.746174 4.8087575e-05
3.0162811 -11.743834 2.1086569e-05
11.632711 -11.748379 9.1109709e-05
11.674662 -11.751752 7.1630799e-05
11.715621 -11.747429 6.9717644e-05
11.734594 -11.748308 6.9836737e-05
11.772289 -11.740843 7.0055503e-05
11.806744 -11.73505 8.0795398e-05
14.7943 -11.72455 9.0338232e-05
14.818642 -11.751317 9.0654983e-05
14.843979 -11.757555 0.00013195217
14.912224 -11.731288 0.00012957357
14.943464 -11.739547 0.00011152785
14.963064 -11.752857 0.0001185343
2.8976216 -11.706541 4.5675075e-05
3.0211024 -11.691323 2.0564979e-05
11.676003 -11.712845 0.0001289557
11.708275 -11.710767 8.6846369e-05
11.744689 -11.714535 6.9751346e-05
11.780508 -11.701117 6.9919988e-05
11.819134 -11.685839 7.0107351e-05
11.84277 -11.686531 7.2767842e-05
14.752685 -11.683127 8.9874826e-05
14.771153 -11.693254 9.0049296e-05
14.805355 -11.715942 9.2451766e-05
14.868912 -11.691845 0.00012516574
14.903825 -11.69712 0.00011578029
14.932522 -11.71043 0.00021478928
17.643452 -11.693636 0.00010944885
2.8967381 -11.659435 4.6189671e-05
3.0223455 -11.659893 2.0729374e-05
11.713684 -11.672039 0.00011148883
11.755344 -11.669436 7.8156882e-05
11.796777 -11.671076 6.9890506e-05
11.828211 -11.649036 6.9991824e-05
11.846415 -11.660709 7.0172115e-05
11.888758 -11.644423 6.7054803e-05
14.715485 -11.648351 8.9457877e-05
14.724944 -11.654342 8.9562811e-05
14.764416 -11.675322 8.9867804e-05
14.83082 -11.650779 0.00012012832
14.862595 -11.651241 7.2176437e-05
14.891665 -11.663405 0.00010846774
2.8949771 -11.618636 4.8094353e-05
3.0130494 -11.614647 3.3052645e-05
11.7503 -11.633045 9.9728073e-05
11.794016 -11.627974 7.9925223e-05
11.836505 -11.62795 6.9952803e-05
11.866895 -11.631363 7.0167982e-05
11.889391 -11.604047 7.0188864e-05
11.925415 -11.60907 7.9655001e-05
14.675926 -11.604733 8.8941546e-05
14.693748 -11.623463 8.9193287e-05
14.724293 -11.637298 8.9258967e-05
14.788017 -11.610336 0.00010283107
14.824018 -11.624962 0.00011043344
14.845375 -11.626489 0.0001135141
17.627436 -11.624239 0.00010900757
2.8937488 -11.589124 4.5886154e-05
3.0241504 -11.571544 0.00012206823
11.796181 -11.595554 9.9428828e-05
11.819586 -11.592113 8.7349603e-05
11.862123 -11.593815 6.9965608e-05
11.88918 -11.59248 7.0131849e-05
11.927593 -11.593205 7.039927e-05
11.970253 -11.569782 5.3974356e-05
14.636442 -11.561621 8.851185e-05
14.647388 -11.570273 8.8627101e-05
14.682313 -11.594896 8.8699089e-05
14.746657 -11.572916 0.00011714706
14.775126 -11.567865 0.00014039574
14.809945 -11.586961 0.00015822894
17.642328 -11.567623 0.00010883625
2.8972363 -11.532619 4.6721812e-05
3.0164969 -11.529393 2.0741692e-05
11.837023 -11.556226 9.7739066e-05
11.869637 -11.546355 9.0522095e-05
11.900856 -11.556725 7.0689377e-05
11.924114 -11.542623 7.8844183e-05
11.991966 -11.535662 7.2382085e-05
12.009475 -11.529678 4.3069413e-05
14.597383 -11.521338 8.8031855e-05
14.618123 -11.543228 8.8310058e-05
14.642535 -11.557798 8.840907e-05
14.710997 -11.535141 0.00010943702
14.741342 -11.527246 9.9743906e-05
14.780258 -11.546165 0.00011513315
2.8975024 -11.501215 4.3607499e-05
3.0219445 -11.495803 2.0334983e-05
11.874882 -11.515429 8.6150219e-05
11.911665 -11.512169 8.7510838e-05
11.943413 -11.496051 8.778293e-05
11.967717 -11.487158 8.7153116e-05
12.025616 -11.495444 8.0619189e-05
12.043534 -11.485877 4.6750927e-05
14.555773 -11.48321 8.7586792e-05
14.566584 -11.485291 8.7664775e-05
14.601583 -11.516217 8.7914552e-05
14.670577 -11.490635 0.00012759274
14.702839 -11.500956 0.0001090029
14.728662 -11.511733 0.00010930457
17.623222 -11.497613 0.0001083712
2.8940694 -11.469263 4.5231216e-05
3.0205352 -11.455558 1.9568366e-05
11.949523 -11.474278 7.5720192e-05
11.962225 -11.471666 9.6897194e-05
12.00306 -11.457459 4.72627e-05
12.063503 -11.459428 6.7639405e-05
12.088848 -11.450741 6.062552e-05
14.517234 -11.446507 8.8089611e-05
14.527851 -11.447769 8.7239147e-05
14.562832 -11.478618 8.7442037e-05
14.619586 -11.467229 0.000101378
14.670087 -11.460077 0.00012344783
14.705442 -11.471027 0.00019891757
2.8971832 -11.415524 4.5194327e-05
3.0191543 -11.426744 2.0605909e-05
11.950167 -11.435682 9.6928503e-05
11.967669 -11.436604 0.00017656322
12.053172 -11.423533 5.7644102e-05
12.088505 -11.437145 4.2190419e-05
12.132149 -11.404068 5.1154821e-05
14.478182 -11.404357 8.7122447e-05
14.502236 -11.428785 8.6974309e-05
14.522863 -11.438753 8.7104985e-05
14.588291 -11.409927 0.00011946585
14.623379 -11.419403 0.00010795949
14.650961 -11.419516 0.0001176901
17.631472 -11.438704 0.00010814401
2.8981271 -11.379215 4.6214955e-05
3.0178428 -11.377669 3.7859871e-05
12.086612 -11.376307 4.9387378e-05
12.131567 -11.391861 5.2240404e-05
12.187027 -11.376243 4.1564272e-05
14.431129 -11.383362 8.7905333e-05
14.469991 -11.363483 8.6446889e-05
14.484591 -11.379615 8.6608445e-05
14.546129 -11.367374 0.00012231943
14.580057 -11.36796 0.0001080951
14.61055 -11.38852 0.00010764599
17.644558 -11.38179 0.00010795907
2.8946078 -11.327887 4.3441254e-05
3.0211568 -11.335508 2.6831056e-05
12.158089 -11.357359 7.9368881e-05
12.182886 -11.355615 5.1911207e-05
14.430847 -11.332436 8.7824941e-05
14.463312 -11.341636 8.62901e-05
14.485133 -11.328949 8.6371656e-05
14.546891 -11.338179 0.00011038104
14.577509 -11.350298 0.00017944706
14.602837 -11.359105 0.00029984256
2.8973417 -11.305521 4.3578984e-05
3.0173349 -11.303629 1.9112093e-05
14.433429 -11.283205 8.7771688e-05
14.469582 -11.312265 8.6198459e-05
14.48334 -11.309163 8.626029e-05
14.524729 -11.295612 0.00010792232
17.641056 -11.318638 0.00010763222
2.8939161 -11.267223 4.3311506e-05
3.0217018 -11.254824 1.8823375e-05
14.436287 -11.279216 8.8447196e-05
14.464247 -11.259469 8.590873e-05
14.483524 -11.270433 8.608857e-05
14.524145 -11.253041 0.00011570737
17.633921 -11.25436 0.00010727546
2.8941939 -11.214016 4.3237298e-05
3.0223494 -11.227724 1.8768627e-05
14.437132 -11.213962 9.704211e-05
14.472097 -11.212805 8.5738095e-05
14.485213 -11.231081 8.5895168e-05
14.524403 -11.224957 0.00015967955
2.8948059 -11.168525 4.2330914e-05
3.0222402 -11.165979 6.8277877e-05
14.469963 -11.162995 8.5483174e-05
14.481606 -11.180719 8.5618914e-05
14.520996 -11.182552 6.5866669e-05
17.626762 -11.190346 0.00010691982
2.8982439 -11.138548 4.5737892e-05
3.0157902 -11.125517 2.4573201e-05
14.438612 -11.129502 8.822263e-05
14.454779 -11.149538 8.5315747e-05
14.48246 -11.135754 8.541462e-05
14.523656 -11.145684 9.6591306e-05
17.635626 -11.132465 0.00010670172
2.8978157 -11.10618 4.2524774e-05
3.0201383 -11.102834 1.8263227e-05
14.439554 -11.108854 9.9155921e-05
14.471762 -11.113665 8.52589e-05
14.486698 -11.104511 8.5305146e-05
14.526855 -11.092699 0.00018993241
2.8964729 -11.064329 4.1428706e-05
3.0213385 -11.052164 1.797109e-05
14.439237 -11.077412 9.4876639e-05
14.466307 -11.060734 8.4968793e-05
14.481142 -11.068287 8.5089909e-05
14.525935 -11.069911 0.00010659439
2.8963923 -11.01089 4.1601044e-05
3.0222764 -11.028643 1.9865372e-05
14.464476 -11.011312 8.4718224e-05
14.481936 -11.0214 8.4874875e-05
14.523907 -11.010292 0.0001264562
2.8983343 -10.975346 4.1869134e-05
3.0229616 -10.967315 4.0584222e-05
14.469185 -10.964828 8.4526298e-05
14.483814 -10.972717 8.4659798e-05
14.522346 -10.983657 0.00012574719
2.8948181 -10.948336 4.1145249e-05
3.0210254 -10.936014 2.346616e-05
14.472653 -10.92393 8.4345178e-05
14.487715 -10.930548 8.447891e-05
14.524902 -10.939795 0.00010586529
2.8939843 -10.894272 4.0880572e-05
3.0188704 -10.904705 1.7336786e-05
14.471236 -10.915585 8.4305058e-05
14.483439 -10.892021 8.4248903e-05
14.521787 -10.892541 0.00010764154
2.8934197 -10.856862 4.0974897e-05
3.0207675 -10.872757 1.717715e-05
14.429992 -10.878249 8.7738656e-05
14.463921 -10.863614 8.4006206e-05
14.485338 -10.862272 8.4126965e-05
14.52524 -10.848316 0.00010225158
2.8994966 -10.814735 4.0211362e-05
3.0245037 -10.809157 0.00010351453
14.468645 -10.817292 8.3815656e-05
14.490683 -10.830706 8.4016137e-05
14.543377 -10.804995 8.4257874e-05
14.565887 -10.810984 8.4435844e-05
14.607793 -10.816199 8.4594329e-05
2.8968756 -10.780195 4.0346753e-05
3.0216351 -10.766108 1.8253173e-05
14.461425 -10.798616 8.3524093e-05
14.493999 -10.799397 8.3741586e-05
14.538616 -10.799275 8.400809e-05
14.575577 -10.79865 8.4171668e-05
14.603127 -10.777397 0.00017070203
2.8947537 -10.741737 4.0383879e-05
3.017626 -10.74111 1.6671134e-05
14.504893 -10.736468 0.00010438914
14.525961 -10.731829 0.00011860945
14.582254 -10.727676 0.00012239652
14.607273 -10.733089 9.8846896e-05
2.893908 -10.700311 3.8890634e-05
3.0222001 -10.693928 1.652936e-05
14.508549 -10.709641 0.00010466151
14.53321 -10.709463 0.00011294397
14.59102 -10.701609 0.00010723817
14.614754 -10.714657 0.00010503842
14.6463 -10.715444 0.00010499552
2.8959289 -10.670447 3.9011495e-05
3.0235825 -10.662043 3.7233658e-05
14.530262 -10.676122 0.00014186448
14.562229 -10.669571 0.00012913157
14.623041 -10.670706 0.00011644194
2.897861 -10.621675 3.8495171e-05
3.0203938 -10.610867 1.6772097e-05
2.8974857 -10.583079 3.8428821e-05
3.0179863 -10.58307 1.6106444e-05
2.8953807 -10.546464 3.8778991e-05
3.02174 -10.544083 1.5963396e-05
2.8937416 -10.489298 3.7165901e-05
3.0237007 -10.498837 1.8896062e-05
2.8959408 -10.458286 3.8092025e-05
3.0191605 -10.45186 1.5542988e-05
2.9006419 -10.425694 3.8181304e-05
3.0174534 -10.423557 1.535796e-05
2.8960509 -10.385164 3.6822141e-05
3.0225573 -10.389522 1.7628219e-05
2.8935111 -10.351574 3.8092468e-05
3.0208426 -10.327538 1.6281272e-05
2.8948224 -10.30746 3.6184327e-05
3.0166023 -10.306827 1.4847381e-05
2.8956029 -10.258873 3.621247e-05
3.022233 -10.258295 1.4781498e-05
2.8949313 -10.209136 3.5865076e-05
3.0212982 -10.208069 1.5864145e-05
2.898931 -10.191278 3.6850346e-05
3.0184867 -10.169115 1.4411694e-05
2.8956866 -10.129062 3.5450506e-05
3.021935 -10.134069 1.4154142e-05
2.8943584 -10.09457 3.459974e-05
3.0232282 -10.086081 2.250885e-05
2.8964605 -10.051014 3.5303277e-05
3.0180731 -10.048254 1.3776307e-05
2.8955426 -10.026622 3.4498778e-05
3.0225089 -10.010089 1.3819948e-05
2.8943748 -9.9820995 3.409999e-05
3.022964 -9.9866848 1.5652417e-05
2.8990242 -9.950407 3.3933295e-05
3.0186937 -9.9280615 1.3304059e-05
14.471295 -9.930069 7.9571968e-05
14.483662 -9.929327 7.9602658e-05
2.8945804 -9.9022493 3.4088465e-05
3.0217824 -9.9021931 1.3312718e-05
14.469065 -9.8857412 7.934212e-05
14.485847 -9.8917446 7.9483769e-05
2.8951993 -9.8661652 3.3437289e-05
3.0226221 -9.8540974 1.5308855e-05
14.473785 -9.8420057 7.9164674e-05
14.484998 -9.8578682 7.9290141e-05
2.8960488 -9.8170576 3.3706921e-05
3.0173752 -9.8261185 1.2871085e-05
14.464779 -9.8330841 7.9061341e-05
14.481019 -9.8095732 7.9033154e-05
14.524765 -9.8087311 9.6853029e-05
2.8940892 -9.7820692 3.3081873e-05
3.0217514 -9.7941008 1.3101471e-05
14.466869 -9.7933702 7.8887082e-05
14.482908 -9.7701445 7.8849276e-05
14.523674 -9.7715969 0.0001777999
2.8943586 -9.7499828 3.4580873e-05
3.022068 -9.7282991 1.2753939e-05
14.435534 -9.7335348 7.7688797e-05
14.466473 -9.7485638 7.8669262e-05
14.486221 -9.7227058 7.8651421e-05
14.527953 -9.7505016 9.6944335e-05
2.8952692 -9.7025442 3.1826967e-05
3.0188668 -9.7092609 1.2391112e-05
14.462713 -9.7028675 7.8424098e-05
14.487078 -9.7056942 7.8564379e-05
14.522867 -9.6946383 9.663323e-05
2.8934703 -9.657835 3.2302731e-05
3.0231929 -9.651268 1.679269e-05
14.467291 -9.6598625 7.8248631e-05
14.484162 -9.6701565 7.8388679e-05
14.527384 -9.6606159 0.00010171466
2.8950484 -9.6267433 3.1606327e-05
3.0190456 -9.6157351 1.2016924e-05
14.462042 -9.6362524 8.0485101e-05
14.48469 -9.6361828 8.4865744e-05
14.525784 -9.6278496 9.8324141e-05
2.8942411 -9.5884533 3.1783435e-05
3.02391 -9.5827694 1.1888402e-05
14.476576 -9.5898457 8.2259881e-05
14.507607 -9.5830898 9.9677636e-05
14.527193 -9.5793762 0.00010051706
2.8973296 -9.5446634 3.1903794e-05
3.017256 -9.5334368 1.1652293e-05
14.479415 -9.5205364 8.090317e-05
14.50118 -9.5391169 9.9398909e-05
14.523668 -9.5335541 9.9007768e-05
2.896503 -9.495142 3.2193704e-05
3.0218053 -9.5087013 1.1746657e-05
14.511698 -9.5010185 9.7560842e-05
14.520755 -9.5024652 9.4113966e-05
2.8951259 -9.4584675 3.1121039e-05
3.0211167 -9.4581547 1.152802e-05
14.508077 -9.4795837 0.00011433862
2.8953438 -9.4243946 3.007068e-05
3.0212674 -9.4200916 1.1212835e-05
2.8971889 -9.3892536 3.1045689e-05
3.0193319 -9.3660603 1.1088739e-05
2.895875 -9.3524847 3.0793519e-05
3.0202408 -9.3388519 1.087443e-05
2.8938847 -9.2866879 3.1386044e-05
3.0209713 -9.2941856 1.079134e-05
2.8979111 -9.2487774 2.9333158e-05
3.020647 -9.2627068 1.0561085e-05
2.8925891 -9.2271671 2.9365416e-05
3.0218792 -9.2079067 1.0412354e-05
2.894068 -9.1892986 3.0432446e-05
3.0215986 -9.1825552 1.0240137e-05
2.8909583 -9.1484947 3.069951e-05
3.0201049 -9.1310406 1.0006535e-05
2.8991117 -9.1050558 2.8479393e-05
3.019892 -9.1149826 9.9493318e-06
2.8926134 -9.0715389 2.9277975e-05
3.0193648 -9.0570946 9.7045331e-06
2.8989027 -9.0163631 2.9720191e-05
3.0167923 -9.0242386 9.581081e-06
2.8985479 -8.9748592 2.8034436e-05
3.0220079 -8.9846382 9.4171201e-06
2.8915846 -8.9407063 2.9884028e-05
3.0198185 -8.9274464 9.1730253e-06
2.899482 -8.8890152 2.8675346e-05
3.021606 -8.8973551 9.0295125e-06
2.8957267 -8.868721 2.7959481e-05
3.0200472 -8.8635674 8.9241694e-06
12.075926 -8.8416023 5.8165577e-05
12.085137 -8.8525715 5.8262529e-05
2.8909936 -8.8354855 2.9545723e-05
3.019536 -8.8102007 8.6901191e-06
12.033475 -8.8104324 5.7731631e-05
12.043868 -8.8239384 5.788061e-05
12.088327 -8.8346367 6.1653802e-05
2.8957257 -8.7929773 2.7869195e-05
3.021925 -8.7711945 8.5367165e-06
11.996212 -8.778141 5.7329737e-05
12.007437 -8.7792015 5.7421057e-05
12.044116 -8.7920752 5.720694e-05
12.10903 -8.7641201 8.4121799e-05
12.13628 -8.7775545 7.8796482e-05
2.8939788 -8.7490015 2.9555682e-05
3.0200872 -8.7506905 8.4509084e-06
11.955375 -8.7310848 5.6836609e-05
11.966936 -8.7352352 5.6934019e-05
12.003363 -8.7538948 5.6816418e-05
12.061733 -8.7269592 8.4933403e-05
12.097375 -8.7363987 7.7578661e-05
12.123215 -8.7528505 8.0055281e-05
2.8929834 -8.6961956 2.7950744e-05
3.0179398 -8.7089901 8.2620791e-06
11.877361 -8.6815929 7.6582983e-05
11.911961 -8.6852493 5.6324956e-05
11.927327 -8.6923828 5.6457407e-05
11.961771 -8.7168379 5.6608249e-05
12.032675 -8.6871052 8.5864813e-05
12.054652 -8.6990852 7.7254299e-05
12.093571 -8.7138424 7.8235193e-05
1.826365 -8.6465178 1.8010207e-05
2.9002805 -8.6560392 2.9133847e-05
3.0181623 -8.6572132 8.0499776e-06
11.874231 -8.6419306 5.5862587e-05
11.885302 -8.6482754 5.5960714e-05
11.926332 -8.6775627 5.6116951e-05
11.994678 -8.652956 7.9804362e-05
12.014379 -8.6524639 7.6712604e-05
12.048601 -8.664197 9.2508715e-05
1.8225578 -8.6183605 1.6186239e-05
2.8954711 -8.6201677 2.8656756e-05
3.021131 -8.6049347 7.8563298e-06
11.833696 -8.6014156 5.5386867e-05
11.85051 -8.6221409 5.5599936e-05
11.881572 -8.6344776 5.5686098e-05
11.94088 -8.6060581 8.6718399e-05
11.987631 -8.6227036 7.5918048e-05
12.006202 -8.6334496 8.0161903e-05
1.8222589 -8.5852928 1.5943024e-05
2.8920398 -8.5891962 2.9442259e-05
3.0214405 -8.590024 7.7822979e-06
11.795307 -8.5632296 5.4933698e-05
11.827784 -8.5958519 5.5328332e-05
11.842386 -8.5954142 5.5279881e-05
11.911841 -8.5689716 7.6370998e-05
11.943895 -8.5811501 7.5965727e-05
11.965878 -8.5923014 7.5893186e-05
1.0228255 -8.5293083 1.7550256e-05
1.1489127 -8.5259705 1.8007137e-05
1.1812911 -8.5244007 1.7414517e-05
1.2118943 -8.5246277 1.7950029e-05
1.2713813 -8.5246677 1.7396451e-05
1.3036144 -8.5231743 1.7672963e-05
1.3401229 -8.5227375 1.7080529e-05
1.392477 -8.5237064 1.7834231e-05
1.4188203 -8.5224953 1.7223216e-05
1.4596672 -8.5266762 1.6902241e-05
1.4904189 -8.5225792 1.760415e-05
1.5266547 -8.5254688 2.0694008e-05
1.5909019 -8.5241718 2.0878289e-05
1.8245466 -8.5434761 1.5781334e-05
2.891067 -8.5417423 3.0183646e-05
3.0200684 -8.5339193 7.5641788e-06
11.749075 -8.5230827 5.4418015e-05
11.772936 -8.5488873 5.4732791e-05
11.801121 -8.5579643 5.4789507e-05
11.86697 -8.5240812 8.6043954e-05
11.898944 -8.5409985 7.5454256e-05
11.929062 -8.5478668 5.8566868e-05
1.0262872 -8.504034 1.7497248e-05
1.0606904 -8.5122547 1.7523582e-05
1.1051831 -8.5097589 1.7358736e-05
1.140538 -8.5138416 1.7281329e-05
1.1839361 -8.5115757 1.7158325e-05
1.2270517 -8.5096607 1.7031514e-05
1.2642796 -8.5096874 1.7014216e-05
1.3069196 -8.5078754 1.6819089e-05
1.3472004 -8.5093689 1.6732345e-05
1.391489 -8.5138512 1.6634633e-05
1.4302905 -8.5117664 1.6582529e-05
1.4652172 -8.5007515 1.6535967e-05
1.4907992 -8.5028477 1.6714246e-05
1.530452 -8.4945698 1.7953842e-05
1.5729026 -8.5003996 1.9915433e-05
1.8217007 -8.4977951 1.5601177e-05
3.019244 -8.5067196 7.4261206e-06
11.713314 -8.4824543 5.3980195e-05
11.740194 -8.5085945 5.4318378e-05
11.764943 -8.51546 5.4343349e-05
11.825075 -8.4865923 9.1667018e-05
11.861984 -8.4987049 7.4764866e-05
11.889355 -8.5119963 0.00010320348
1.4837885 -8.4798679 1.9973326e-05
1.8252642 -8.461134 1.5559493e-05
3.0176854 -8.4721098 7.2861044e-06
11.676657 -8.4531107 5.3601132e-05
11.702663 -8.4672928 5.3866792e-05
11.722353 -8.4763985 5.3927237e-05
11.791919 -8.454565 8.1762511e-05
11.816903 -8.465868 7.5862576e-05
11.845592 -8.4713497 7.4506868e-05
3.0190287 -8.4137049 7.0566084e-06
11.636263 -8.4017925 5.3066193e-05
11.658235 -8.4244633 5.3361335e-05
11.681824 -8.4371834 5.3523916e-05
11.742432 -8.4083347 6.3234569e-05
11.778195 -8.4078236 7.3685878e-05
11.804836 -8.4319649 7.4234384e-05
3.0189927 -8.3846273 6.9209927e-06
11.59333 -8.3637829 5.2580031e-05
11.615129 -8.3824978 5.2868956e-05
11.640957 -8.3904285 5.300092e-05
11.691765 -8.3893185 6.1312341e-05
11.74939 -8.3830814 7.3660267e-05
11.770033 -8.3816814 7.1508424e-05
3.0173502 -8.3500576 6.7816309e-06
11.555145 -8.3221188 5.2145024e-05
11.587653 -8.3453083 5.2504947e-05
11.609338 -8.3552094 5.268697e-05
11.668024 -8.3253546 8.8696121e-05
11.70016 -8.3327217 7.3047413e-05
11.731726 -8.3504848 7.2962561e-05
2.7897062 -8.2874308 4.2663811e-05
2.819135 -8.2903433 4.2062817e-05
2.8547142 -8.2969818 4.3074026e-05
2.8947392 -8.2835569 4.2696051e-05
2.9256325 -8.2844868 4.5424873e-05
3.0202017 -8.3010225 6.6024413e-06
11.514942 -8.2824678 5.1846419e-05
11.543058 -8.3038111 5.2004794e-05
11.563217 -8.3138847 5.216623e-05
11.616803 -8.3069019 6.0138424e-05
11.656146 -8.2927618 7.2360432e-05
11.687994 -8.3085365 7.2915383e-05
2.7855637 -8.2711391 4.3855594e-05
2.812114 -8.2664604 4.32788e-05
2.8602729 -8.2707367 4.2216001e-05
2.8984721 -8.2718334 4.3681976e-05
2.942174 -8.2564774 4.5625457e-05
2.9656694 -8.2567081 4.4592904e-05
3.0206165 -8.2619572 6.4447731e-06
11.476954 -8.2429295 5.3318545e-05
11.501562 -8.2640858 5.1532792e-05
11.523937 -8.2719917 5.1713872e-05
11.594963 -8.2456703 7.2905219e-05
11.629865 -8.2638941 7.2533985e-05
11.649888 -8.2663383 7.232232e-05
1.9198773 -8.2096052 1.4406273e-05
1.925096 -8.2142534 1.8422033e-05
2.795609 -8.2119379 2.8155333e-05
2.811656 -8.2239017 3.618254e-05
2.8539236 -8.2349119 4.5602665e-05
2.905575 -8.2338943 4.65708e-05
2.9396594 -8.2252665 4.6845173e-05
2.9611979 -8.2375422 4.9086877e-05
3.02068 -8.2233629 6.2869199e-06
11.473831 -8.2248459 5.1157789e-05
11.491101 -8.2285089 5.1288527e-05
11.55171 -8.2090797 8.3854829e-05
11.592828 -8.2167721 7.1898947e-05
11.614071 -8.2263432 7.1726965e-05
1.9162267 -8.187088 1.44747e-05
1.9250126 -8.1781597 1.420404e-05
2.7945294 -8.166172 2.1889418e-05
2.8026547 -8.1817646 2.0052525e-05
3.0200362 -8.1832228 6.1198298e-06
11.474003 -8.1848621 5.0968232e-05
11.487575 -8.1749544 5.1007693e-05
11.555691 -8.1818962 7.1350281e-05
11.567362 -8.1728172 7.065956e-05
1.9181166 -8.1413755 1.4213211e-05
1.9223516 -8.1365147 1.4086718e-05
2.7963879 -8.1238937 1.4756234e-05
2.8239877 -8.1247253 1.2776336e-05
2.8639536 -8.1230574 1.6317483e-05
2.9075365 -8.1246967 1.1749062e-05
2.9404025 -8.1221581 1.4581242e-05
2.9699581 -8.1220284 9.8245855e-06
3.0198958 -8.1343966 5.9219346e-06
11.435398 -8.145998 7.0333401e-05
11.468138 -8.1401148 5.0713174e-05
11.484289 -8.1461449 5.0840536e-05
11.529001 -8.1406097 7.0750801e-05
1.8309025 -8.0971098 1.3953987e-05
1.8564177 -8.0861855 1.3882748e-05
1.9100296 -8.1039219 1.3784616e-05
1.9218075 -8.0896444 1.376977e-05
2.7946987 -8.0973778 8.9806763e-06
2.8310575 -8.0904341 4.295624e-06
2.8585849 -8.0849648 4.4793987e-06
2.9071648 -8.0848417 4.8546171e-06
2.9465296 -8.0936718 5.1936927e-06
2.9750004 -8.0927086 5.4009593e-06
3.0117722 -8.0922127 5.6841072e-06
11.47537 -8.0883675 5.0513692e-05
11.488214 -8.1131325 5.0717994e-05
11.525343 -8.1022682 7.0758921e-05
1.8227919 -8.0665627 1.3908677e-05
1.8727822 -8.0771713 1.3758109e-05
1.8963585 -8.0738449 1.375961e-05
1.9229623 -8.0728016 1.4362086e-05
2.7971225 -8.0704193 1.9929092e-05
2.8257675 -8.0726547 4.1683766e-06
2.86727 -8.0711088 4.4890876e-06
2.894546 -8.0688248 4.6899645e-06
2.940491 -8.0753708 5.0556682e-06
2.9830363 -8.0692215 5.3534659e-06
3.0080733 -8.0733128 5.5559276e-06
11.439201 -8.079442 5.7592806e-05
11.475275 -8.0569305 5.0360402e-05
11.485898 -8.0599241 5.0444436e-05
11.531576 -8.0673971 7.0893031e-05
1.8243843 -8.027688 1.36645e-05
3.0548296 -8.0261669 6.4692627e-05
11.469151 -8.0248089 5.0166374e-05
11.484941 -8.0203609 5.0245635e-05
11.523797 -8.0279255 7.0306654e-05
1.7066369 -7.9645929 1.3905781e-05
1.748021 -7.9641614 1.3729583e-05
1.7836165 -7.9688892 1.348906e-05
1.8237373 -7.9835978 1.3465558e-05
3.0538449 -7.9722543 6.3890489e-05
11.46889 -7.9869289 4.9983206e-05
11.48517 -7.9752617 5.0031467e-05
11.523245 -7.9818449 6.9960377e-05
-10.791256 -7.9278069 7.3643962e-05
1.7140794 -7.9522886 1.3916901e-05
1.7480323 -7.9479818 1.3494793e-05
1.7893524 -7.957685 1.3588027e-05
1.8239918 -7.9553928 1.3441647e-05
3.0711117 -7.9320612 6.1859566e-05
3.1146698 -7.9291639 5.9803351e-05
3.1483121 -7.9280925 5.8766327e-05
3.1868353 -7.9384584 5.6979326e-05
3.2261624 -7.9300833 5.5490644e-05
3.2681458 -7.9297175 5.4050488e-05
3.2839155 -7.9369416 5.440761e-05
11.473544 -7.9431672 4.9803104e-05
11.484255 -7.9462605 4.9886679e-05
11.527 -7.9381843 6.983192e-05
-10.782558 -7.8974085 9.2491537e-05
3.0719972 -7.9166012 6.1609659e-05
3.0898166 -7.9191537 6.2074731e-05
3.1309712 -7.9119301 5.9936356e-05
3.1680715 -7.918252 6.0790902e-05
3.2640243 -7.9198847 5.753497e-05
3.2867355 -7.91467 5.7870238e-05
11.47273 -7.8996925 4.9590435e-05
11.485276 -7.9074125 4.9707254e-05
11.529041 -7.9078264 6.9594789e-05
-10.801154 -7.8412857 3.4583525e-05
-10.786507 -7.8582258 7.7365898e-05
11.470534 -7.8583479 4.9375405e-05
11.485321 -7.862299 4.948986e-05
11.527841 -7.8553495 6.955587e-05
-10.801499 -7.8391962 7.9698359e-05
-10.787241 -7.8201838 9.3716655e-05
-10.73562 -7.8232727 9.1191578e-05
11.474152 -7.8153458 4.9194863e-05
11.483755 -7.8238335 4.9298007e-05
11.522419 -7.8118629 6.9528433e-05
-10.792414 -7.7735224 7.4850803e-05
-10.740388 -7.7873783 9.1595182e-05
-10.708858 -7.767827 7.0975766e-05
11.47634 -7.7753563 4.9017031e-05
11.487427 -7.7809129 4.9106755e-05
11.525027 -7.7721524 6.9463087e-05
-10.781028 -7.7481985 8.7600791e-05
-10.73629 -7.7438889 7.1336632e-05
-10.714945 -7.7453547 5.2070689e-05
11.473499 -7.7453709 4.8853799e-05
11.486883 -7.7335672 4.8881942e-05
11.524455 -7.7398586 6.8847723e-05
-10.782706 -7.6936312 7.0792543e-05
-10.736669 -7.7046256 5.3579774e-05
-10.717745 -7.685318 5.1657706e-05
11.474396 -7.7054019 4.8668608e-05
11.486061 -7.695632 4.869276e-05
11.530968 -7.7086039 6.8930785e-05
-10.80354 -7.6548748 8.0172329e-05
-10.780996 -7.6589775 7.7773657e-05
-10.73653 -7.6623611 5.4565859e-05
-10.715918 -7.6553698 5.1509578e-05
11.470119 -7.663661 4.8436552e-05
11.485199 -7.6646471 4.8542795e-05
11.523777 -7.6458282 6.8222762e-05
-10.784229 -7.618854 9.3811264e-05
-10.73413 -7.619421 5.1706964e-05
-10.713078 -7.6136594 5.1377374e-05
11.467833 -7.6246977 4.8236281e-05
11.491817 -7.6214957 4.8381989e-05
11.524517 -7.6075201 6.8362933e-05
-10.809984 -7.5866642 7.9082391e-05
-10.789148 -7.5796394 6.5989399e-05
-10.723547 -7.5767708 5.1409836e-05
-10.708342 -7.5676141 5.1759031e-05
11.473327 -7.5812359 4.80628e-05
11.483611 -7.583252 4.8139671e-05
11.526129 -7.5822992 6.858664e-05
-10.804815 -7.5588827 7.7366713e-05
-10.777622 -7.5386181 8.6622968e-05
-10.728527 -7.5517755 5.1595387e-05
-10.717007 -7.5372491 5.1393781e-05
11.473582 -7.5411835 4.787467e-05
11.484577 -7.5378904 4.7928675e-05
11.527927 -7.5477443 6.8875204e-05
-10.7894 -7.5052238 7.1456809e-05
-10.733786 -7.4989614 5.0650255e-05
-10.710453 -7.4944954 5.1770385e-05
11.473984 -7.4991221 4.7671529e-05
11.48461 -7.5003967 4.7750211e-05
11.535908 -7.4953756 6.8152411e-05
-10.802399 -7.4408388 7.7300341e-05
-10.777687 -7.4686766 9.036863e-05
-10.728578 -7.4607573 5.1244795e-05
-10.702465 -7.4572887 5.1591902e-05
11.437453 -7.4505663 6.278581e-05
11.471822 -7.4570594 4.7458874e-05
11.486569 -7.4556427 4.7547222e-05
11.52256 -7.4594049 6.8234411e-05
-10.801089 -7.4191103 3.1068768e-05
-10.787617 -7.4124641 9.0902387e-05
-10.724775 -7.4220729 5.0482005e-05
-10.707735 -7.4135237 5.1805269e-05
11.475864 -7.4162989 4.7289424e-05
11.486868 -7.419663 4.7372294e-05
11.526084 -7.4245071 6.7818597e-05
-10.811338 -7.3771048 7.6776625e-05
-10.785065 -7.3736839 7.0040784e-05
-10.726377 -7.3817883 5.0592858e-05
-10.705923 -7.3775768 5.1608295e-05
11.473216 -7.3749981 4.7074442e-05
11.485486 -7.3699589 4.7125191e-05
11.533148 -7.3826838 6.7868525e-05
-10.774151 -7.3344774 8.7316446e-05
-10.722816 -7.3392448 5.0625793e-05
-10.708483 -7.331356 5.059897e-05
11.470966 -7.3337283 4.685979e-05
11.487557 -7.3374515 4.6982579e-05
11.525104 -7.3328972 6.698363e-05
-10.807373 -7.300127 7.7338496e-05
-10.790438 -7.3003817 7.245475e-05
-10.728738 -7.3010464 4.9336799e-05
-10.702706 -7.29005 5.05348e-05
-10.675992 -7.282527 5.0962593e-05
11.438769 -7.2862463 6.922608e-05
11.466088 -7.3011389 4.6669404e-05
11.488563 -7.3006945 4.6818455e-05
11.528514 -7.2998605 6.733906e-05
-10.8021 -7.271225 7.73055e-05
-10.784034 -7.2668695 8.6807813e-05
-10.723758 -7.2572751 4.9732942e-05
-10.707174 -7.2607422 4.7767004e-05
11.46292 -7.2706661 4.6503235e-05
11.488077 -7.2544665 4.6591798e-05
11.523293 -7.2634149 6.6262422e-05
-10.805101 -7.2100186 5.3072428e-05
-10.789116 -7.2145095 7.0042282e-05
-10.728889 -7.2213602 4.8561298e-05
-10.71082 -7.218132 4.6315501e-05
11.474926 -7.2249799 4.6364774e-05
11.485756 -7.2071123 4.6343641e-05
11.527725 -7.2190242 6.6985071e-05
-10.803044 -7.1650982 5.7105717e-05
-10.780678 -7.1852398 9.2770162e-05
-10.727467 -7.181253 4.8951828e-05
-10.711264 -7.1766033 4.4466757e-05
-10.675673 -7.1834493 4.937045e-05
11.439571 -7.1669517 6.9340589e-05
11.474922 -7.183167 4.6164856e-05
11.482973 -7.1878061 4.6229135e-05
11.525978 -7.1911211 6.7022374e-05
-10.802383 -7.1258316 7.9167774e-05
-10.775532 -7.1342716 8.7559434e-05
-10.72724 -7.1369147 4.6161e-05
-10.708906 -7.1352425 4.3590378e-05
11.465576 -7.1427894 4.5907051e-05
11.494038 -7.1263943 4.600644e-05
11.525436 -7.1384325 6.6524553e-05
-10.784436 -7.0931144 7.0694405e-05
-10.724564 -7.1044149 4.3346379e-05
-10.709243 -7.1034169 4.1978681e-05
11.468782 -7.110898 4.5775902e-05
11.488979 -7.0915771 4.5817891e-05
11.526663 -7.0997043 6.6392749e-05
-10.790421 -7.0657907 5.8808677e-05
-10.722662 -7.0583572 4.2925974e-05
-10.713194 -7.052362 3.9711849e-05
11.464149 -7.0621796 4.5505902e-05
11.484715 -7.0629811 4.5651352e-05
11.531017 -7.0601592 6.6279848e-05
-10.801844 -7.007946 7.5046009e-05
-10.78793 -7.011198 6.8291629e-05
-10.722816 -7.0118837 3.8826831e-05
-10.712173 -7.0115933 3.9306637e-05
11.438631 -7.0161333 4.5073331e-05
11.472349 -7.0272894 4.5396722e-05
11.483516 -7.02175 4.5446661e-05
11.53064 -7.024991 6.620893e-05
-10.774157 -6.9864779 7.9608741e-05
-10.729948 -6.9784331 3.9126568e-05
-10.711794 -6.9657621 3.6767022e-05
11.4648 -6.9816041 4.5123117e-05
11.486786 -6.9820738 4.5276625e-05
11.524944 -6.9812698 6.6155626e-05
-10.806748 -6.945961 7.22611e-05
-10.778952 -6.9361944 8.277344e-05
-10.724489 -6.9390893 3.8002883e-05
-10.711748 -6.9311857 3.6063313e-05
11.469379 -6.9452925 4.4984808e-05
11.483543 -6.9401627 4.5053141e-05
11.522935 -6.9509177 6.5981498e-05
-10.801822 -6.9025364 6.0249033e-05
-10.786013 -6.9055543 7.5659307e-05
-10.724636 -6.891449 3.5668563e-05
-10.713813 -6.9154525 3.482998e-05
11.438932 -6.9006305 4.4196007e-05
11.473624 -6.9005184 4.4796012e-05
11.497991 -6.9020758 4.4963774e-05
11.529808 -6.9044204 6.5683183e-05
-10.802745 -6.877388 4.9120539e-05
-10.770545 -6.8662481 8.4782318e-05
-10.728202 -6.8677282 3.4373581e-05
-10.708771 -6.8704801 3.3521173e-05
11.468755 -6.8604522 4.4571952e-05
11.485043 -6.8576126 4.4667835e-05
11.526272 -6.8572922 6.5424138e-05
-10.804919 -6.8122263 7.1144008e-05
-10.790859 -6.8206835 5.7244681e-05
-10.729711 -6.8226767 3.2483658e-05
-10.714851 -6.8092213 3.1460811e-05
11.466021 -6.8200569 4.4355085e-05
11.483797 -6.8198247 4.44775e-05
11.526749 -6.8188744 6.5223569e-05
-10.801411 -6.7769384 6.4907443e-05
-10.782251 -6.7829351 9.0231784e-05
-10.726273 -6.7705727 3.2544958e-05
-10.713036 -6.7741346 2.9777411e-05
11.469234 -6.7814856 4.4197048e-05
11.493672 -6.7771835 4.4339868e-05
11.528383 -6.782824 6.5579763e-05
-10.774862 -6.7308369 8.0388651e-05
-10.728703 -6.7494173 2.8876559e-05
-10.714677 -6.7468786 2.9307905e-05
11.474642 -6.7398338 4.4026376e-05
11.486464 -6.7387347 4.4106637e-05
11.529709 -6.7382369 6.4955864e-05
-10.80345 -6.6800127 2.4909195e-05
-10.790712 -6.6979856 6.7347995e-05
-10.730468 -6.7021208 2.7908796e-05
-10.717852 -6.7066984 2.7335904e-05
11.474707 -6.694047 4.3814129e-05
11.491566 -6.7021742 4.3965778e-05
11.52317 -6.6952357 6.4732965e-05
-10.806625 -6.653996 7.1937233e-05
-10.783912 -6.663887 8.4558123e-05
-10.72818 -6.6485682 2.5824855e-05
-10.715295 -6.6665726 2.5919067e-05
11.475095 -6.6585817 4.3641179e-05
11.482832 -6.657928 4.3692755e-05
11.528812 -6.6680212 6.4682987e-05
-10.812106 -6.6394587 7.0572387e-05
-10.774888 -6.6093407 6.9335925e-05
-10.728615 -6.6248951 2.5606931e-05
-10.717289 -6.6124539 2.4493256e-05
5.2727432 -6.6036696 2.1595411e-06
5.3109756 -6.6230941 1.8803026e-06
5.3212886 -6.6200323 1.880321e-06
5.3622389 -6.6275616 1.8805383e-06
5.401535 -6.6358299 2.7380524e-06
11.461743 -6.6205592 4.3374243e-05
11.483892 -6.6066523 4.3454238e-05
11.529501 -6.6155882 6.4317974e-05
-10.731201 -6.5739398 2.2076052e-05
-10.71405 -6.5801277 2.3928269e-05
1.3381678 -6.5649629 3.1143143e-05
5.1445627 -6.5625067 2.149895e-06
5.1831627 -6.5748115 2.3628468e-06
5.2214928 -6.5873852 2.1596875e-06
5.2406788 -6.5935941 2.1596356e-06
11.473562 -6.5770359 4.3242737e-05
11.482802 -6.5778465 4.330407e-05
11.527377 -6.5779262 6.4172287e-05
-10.726837 -6.5372806 2.0873402e-05
-10.715129 -6.5431557 2.4030058e-05
1.2278619 -6.5276403 9.1746506e-06
1.2478788 -6.5216398 8.4067715e-06
1.3416886 -6.544292 3.1149808e-05
1.3696065 -6.5318499 3.1294912e-05
5.0278234 -6.5262055 2.0992679e-06
5.0668058 -6.5382123 2.1471819e-06
5.1057034 -6.5503545 2.148636e-06
11.467865 -6.5345616 4.300267e-05
11.487782 -6.5409231 4.3164124e-05
11.526608 -6.545763 6.4064545e-05
-10.726564 -6.4999971 2.010818e-05
-10.715408 -6.4894199 1.9985086e-05
1.2203401 -6.4980364 9.1244237e-06
1.2563442 -6.4991574 8.9872492e-06
1.2877935 -6.4835081 1.0022025e-05
1.3551806 -6.5171428 3.1169122e-05
1.3870891 -6.5043497 3.1379226e-05
1.4178413 -6.4874983 3.1548389e-05
4.8765287 -6.4834099 1.8650519e-06
4.9095192 -6.4924726 1.8651008e-06
4.9490376 -6.5034971 1.8651606e-06
4.9885011 -6.5147161 1.8652211e-06
11.438064 -6.4862604 6.3890846e-05
11.47328 -6.4962568 4.2852778e-05
11.482828 -6.4968438 4.2916217e-05
11.530293 -6.484314 6.3891392e-05
-10.743589 -6.4596238 1.8355555e-05
-10.71488 -6.4530754 1.8102362e-05
1.2233703 -6.456759 8.9667028e-06
1.2775187 -6.4774618 9.0344738e-06
1.3087459 -6.4526339 8.6275477e-06
1.3263888 -6.4452114 9.0189169e-06
1.4227622 -6.4639206 3.1494277e-05
1.4500798 -6.4542527 3.1665615e-05
4.7376614 -6.446959 1.8648509e-06
4.7774067 -6.4571362 1.8649073e-06
4.8171015 -6.4675088 1.8649644e-06
4.8567438 -6.4780774 1.8650223e-06
11.470798 -6.4642124 4.2684082e-05
11.485952 -6.4461989 4.2698935e-05
11.523232 -6.461081 6.3720938e-05
-10.727348 -6.4079819 1.7514216e-05
-10.715319 -6.4255161 3.9101848e-05
1.2220569 -6.4190588 8.7750941e-06
1.3151594 -6.4363542 9.3238996e-06
1.3417017 -6.4141502 8.4095245e-06
1.3675954 -6.4034262 9.0006197e-06
1.4307696 -6.4352746 3.1688018e-05
1.4628381 -6.4231782 3.1699088e-05
1.4909128 -6.4097652 3.1844742e-05
4.5582852 -6.4035063 2.1428975e-06
4.5782204 -6.4081249 1.8670066e-06
4.6181316 -6.4176059 1.8657657e-06
4.6646132 -6.4287629 1.864743e-06
4.6978664 -6.4369783 1.8647953e-06
11.470059 -6.4152141 4.2443371e-05
11.4873 -6.41819 4.2553875e-05
11.525501 -6.4257717 6.3822597e-05
-10.740438 -6.3722954 4.8294271e-05
-10.715297 -6.3662262 2.0458499e-05
1.2183065 -6.3782001 8.6041791e-06
1.3572085 -6.3949146 8.8984216e-06
1.3850278 -6.3756828 8.1478838e-06
1.4064325 -6.3641796 8.9922778e-06
1.4605306 -6.3838797 4.2882995e-05
1.5062542 -6.3805394 3.1865417e-05
1.5327972 -6.371604 3.2044445e-05
4.3854265 -6.363585 2.1428034e-06
4.4253616 -6.3725953 2.1428273e-06
4.4784951 -6.3847589 2.1428571e-06
4.5184278 -6.3940368 2.1428673e-06
4.5317369 -6.3972054 2.1428884e-06
11.468938 -6.3719864 4.2227479e-05
11.486694 -6.3786445 4.2379736e-05
11.523739 -6.3697739 6.3569976e-05
-10.739861 -6.3309069 4.1427578e-05
-10.712612 -6.3377714 1.8607872e-05
1.2204651 -6.3379617 8.4357289e-06
1.3578813 -6.3562713 1.4402432e-05
1.3859563 -6.3575497 8.2759043e-06
1.4233207 -6.3336535 7.8869161e-06
1.448741 -6.32411 8.6023101e-06
1.4988633 -6.3291674 6.2003652e-05
1.548263 -6.3303919 4.6292211e-05
1.5693169 -6.3317518 4.0504347e-05
4.198709 -6.323041 2.1427015e-06
4.2254319 -6.3287258 2.1427127e-06
4.2654676 -6.3372717 2.1427395e-06
4.3054872 -6.3459187 2.1427531e-06
4.3454552 -6.3547139 2.1427797e-06
11.439597 -6.3498268 6.1045845e-05
11.474928 -6.3353038 4.208646e-05
11.484866 -6.3339233 4.21515e-05
11.530203 -6.3382797 6.4330059e-05
-10.733568 -6.2922244 1.569467e-05
-10.716078 -6.2908554 1.8382576e-05
1.2156016 -6.2935028 8.3236846e-06
1.3982158 -6.3132234 1.6123786e-05
1.436693 -6.3149395 9.0380245e-06
1.4653429 -6.2923265 7.6278034e-06
1.4840871 -6.2940969 7.8631329e-06
1.5575535 -6.3104448 4.7947586e-05
1.5957263 -6.2883034 3.883812e-05
1.6154807 -6.2830372 3.4082972e-05
1.6469598 -6.2820439 3.2817556e-05
3.9980958 -6.2824936 2.1425883e-06
4.0382848 -6.2903376 2.1426163e-06
4.0717254 -6.29702 2.1426272e-06
4.1185379 -6.3064504 2.1426345e-06
4.1586514 -6.3146968 2.1426633e-06
11.437914 -6.2966967 4.1169234e-05
11.469133 -6.3004537 4.1887022e-05
11.487432 -6.2967548 4.1978059e-05
11.526159 -6.2962813 6.3195679e-05
-10.739195 -6.2732577 4.0924213e-05
-10.715946 -6.2708836 1.769451e-05
1.2188277 -6.2582932 8.1214257e-06
1.4767306 -6.2692256 8.0410282e-06
1.5013758 -6.2563305 7.3936317e-06
1.5241091 -6.2462845 8.0884492e-06
1.5905768 -6.2599373 2.884081e-05
1.633847 -6.2415361 2.6737693e-05
1.6467156 -6.244988 2.6776279e-05
3.7834313 -6.2424283 2.1424978e-06
3.8170314 -6.2484975 2.1425035e-06
3.8639944 -6.2570753 2.1425101e-06
3.9176729 -6.2670832 2.142541e-06
3.9578898 -6.2747016 2.1425826e-06
3.9846973 -6.2798467 2.1425903e-06
11.472477 -6.2666812 4.1746687e-05
11.487531 -6.2535658 4.1778574e-05
11.522367 -6.2442107 6.2978084e-05
-10.737936 -6.2264032 7.0764159e-05
-10.71495 -6.2171836 1.7869881e-05
1.2214458 -6.2215176 7.9600832e-06
1.5147569 -6.2325697 7.7508412e-06
1.5422485 -6.2177205 7.1393083e-06
1.564746 -6.2048435 8.039131e-06
1.6203257 -6.2130699 1.908024e-05
1.6509595 -6.2151289 2.5272526e-05
1.6921527 -6.204412 2.6862759e-05
1.7203009 -6.2011952 3.3107899e-05
3.5567436 -6.203176 2.1596593e-06
3.5817616 -6.2079558 1.8973567e-06
3.6220558 -6.2145953 2.1423998e-06
3.6624377 -6.221416 2.1424228e-06
3.7027807 -6.2282686 2.1424321e-06
3.7431417 -6.235333 2.1424689e-06
11.470119 -6.2256284 4.1530755e-05
11.48677 -6.2208281 4.1619409e-05
11.524847 -6.2237296 6.304479e-05
-10.736702 -6.1745591 7.0149406e-05
-10.717537 -6.1875763 1.6706021e-05
1.2166908 -6.183804 7.8745379e-06
1.5566304 -6.1955795 7.5359176e-06
1.578042 -6.1794562 6.9041253e-06
1.6048297 -6.1643577 7.6508004e-06
1.6560565 -6.1752892 1.8639683e-05
1.6974878 -6.1697245 2.1782049e-05
1.7262976 -6.1629238 2.5736665e-05
3.5135744 -6.1940742 1.8925158e-06
3.536031 -6.1989717 2.1583644e-06
3.5832357 -6.1720929 2.1565411e-06
3.6019211 -6.1826243 2.1298761e-06
11.474234 -6.1770506 4.1328745e-05
11.487648 -6.195117 4.1503004e-05
11.524906 -6.1806297 6.0940332e-05
-10.743053 -6.1293316 5.8873695e-05
-10.710621 -6.1282806 1.6983286e-05
1.2167133 -6.1500392 7.6243837e-06
1.5571594 -6.1561284 1.5184606e-05
1.5954183 -6.1569395 7.1938703e-06
1.6319485 -6.1289401 6.5176428e-06
1.6436296 -6.1230011 7.3361116e-06
1.6999165 -6.1315804 1.7988392e-05
1.7363478 -6.1340694 2.0288053e-05
1.7644521 -6.1243038 2.5216739e-05
1.8448582 -6.1310921 3.1713513e-05
3.5031819 -6.1292429 2.5277641e-06
3.5389032 -6.1490631 2.5284703e-06
11.436543 -6.1227322 6.47915e-05
11.476184 -6.1442194 4.1183259e-05
11.484112 -6.1454058 4.1232342e-05
11.525234 -6.1397047 6.2570711e-05
-10.73693 -6.1035194 3.5836107e-05
-10.717561 -6.0931487 1.6274371e-05
1.2194524 -6.1003695 7.3496435e-06
1.6372567 -6.1164527 6.8646891e-06
1.6651478 -6.0999708 6.3458092e-06
1.6890804 -6.0850992 6.676968e-06
1.730981 -6.0968552 1.7841854e-05
1.7715398 -6.0925918 1.9209445e-05
1.8025317 -6.0915112 2.5697049e-05
1.8547087 -6.0879393 3.126121e-05
1.8934349 -6.0802369 3.1807223e-05
3.4372368 -6.0936885 2.5278355e-06
3.4732592 -6.1129751 2.5278093e-06
11.467708 -6.1051869 4.0940267e-05
11.487881 -6.0949316 4.1014668e-05
11.528746 -6.0952587 6.2229403e-05
-10.736794 -6.0642705 3.5481815e-05
-10.709789 -6.0593481 1.5883867e-05
1.2188103 -6.0598202 7.1595732e-06
1.6743089 -6.0773659 6.4087508e-06
1.7094418 -6.0551057 6.0596681e-06
1.7251772 -6.0447311 6.3373386e-06
1.7809088 -6.0606575 1.8048515e-05
1.8125519 -6.0560822 1.9398114e-05
1.8455193 -6.0498567 2.4742383e-05
1.8938071 -6.0574608 3.1577274e-05
1.9251928 -6.0497384 3.2292806e-05
2.0333834 -6.0515823 3.1635042e-05
2.0412307 -6.0571184 3.0691699e-05
3.3526318 -6.0497913 2.5278769e-06
